-1.27932 2.00686 2.00686 2 3 1
-1.29761 2.00453 2.00453 2 3 1
-1.31592 2.00267 2.00267 2 3 1
-1.33423 2.00128 2.00128 2 3 1
-1.35255 2.00039 2.00039 2 3 1
-1.37084 2.00001 2.00001 2 3 1
-1.38911 2.00016 2.00016 2 3 1
-1.40733 2.00084 2.00084 2 3 1
-1.4255 2.00208 2.00208 2 3 1
-1.44358 2.00388 2.00388 2 3 1
-1.46157 2.00626 2.00626 2 3 1
-1.47945 2.00923 2.00923 2 3 1
-1.4972 2.01279 2.01279 2 3 1
-1.51479 2.01696 2.01696 2 3 1
-1.5322 2.02174 2.02174 2 3 1
-1.54942 2.02714 2.02714 2 3 1
-1.56643 2.03316 2.03316 2 3 1
-1.58319 2.0398 2.0398 2 3 1
-1.5997 2.04705 2.04705 2 3 1
-1.61592 2.05491 2.05491 2 3 1
-1.63185 2.06337 2.06337 2 3 1
-1.64746 2.07243 2.07243 2 3 1
-1.66273 2.08207 2.08207 2 3 1
-1.67765 2.09228 2.09228 2 3 1
-1.6922 2.10304 2.10304 2 3 1
-1.70638 2.11434 2.11434 2 3 1
-1.72017 2.12615 2.12615 2 3 1
-1.73356 2.13845 2.13845 2 3 1
-1.74655 2.15122 2.15122 2 3 1
-1.75914 2.16445 2.16445 2 3 1
-1.77131 2.17811 2.17811 2 3 1
-1.78308 2.19217 2.19217 2 3 1
-1.79443 2.20661 2.20661 2 3 1
-1.80539 2.22142 2.22142 2 3 1
-1.81594 2.23657 2.23657 2 3 1
-1.82609 2.25203 2.25203 2 3 1
-1.83585 2.2678 2.2678 2 3 1
-1.84522 2.28385 2.28385 2 3 1
-1.85422 2.30016 2.30016 2 3 1
-1.86285 2.31671 2.31671 2 3 1
-1.87112 2.33349 2.33349 2 3 1
-1.87903 2.35048 2.35048 2 3 1
-1.88661 2.36767 2.36767 2 3 1
-1.89385 2.38504 2.38504 2 3 1
-1.90077 2.40258 2.40258 2 3 1
-1.90737 2.42028 2.42028 2 3 1
-1.91367 2.43812 2.43812 2 3 1
-1.91967 2.4561 2.4561 2 3 1
-1.92539 2.47421 2.47421 2 3 1
-1.93082 2.49243 2.49243 2 3 1
-1.93599 2.51077 2.51077 2 3 1
-1.9409 2.5292 2.5292 2 3 1
-1.94556 2.54772 2.54772 2 3 1
-1.94997 2.56634 2.56634 2 3 1
-1.95414 2.58503 2.58503 2 3 1
-1.95809 2.60379 2.60379 2 3 1
-1.96182 2.62263 2.62263 2 3 1
-1.96533 2.64153 2.64153 2 3 1
-1.96863 2.66049 2.66049 2 3 1
-1.97174 2.6795 2.6795 2 3 1
-1.97465 2.69856 2.69856 2 3 1
-1.97737 2.71767 2.71767 2 3 1
-1.97991 2.73683 2.73683 2 3 1
-1.98227 2.75602 2.75602 2 3 1
-1.98446 2.77525 2.77525 2 3 1
-1.98648 2.79452 2.79452 2 3 1
-1.98835 2.81382 2.81382 2 3 1
-1.99006 2.83314 2.83314 2 3 1
-1.99161 2.8525 2.8525 2 3 1
-1.99303 2.87188 2.87188 2 3 1
-1.99429 2.89128 2.89128 2 3 1
-1.99542 2.91071 2.91071 2 3 1
-1.99642 2.93016 2.93016 2 3 1
-1.99729 2.94962 2.94962 2 3 1
-1.99803 2.9691 2.9691 2 3 1
-1.99864 2.9886 2.9886 2 3 1
-1.99914 3.00811 3.00811 2 3 1
-1.99952 3.02763 3.02763 2 3 1
-1.99979 3.04717 3.04717 2 3 1
-1.99995 3.06672 3.06672 2 3 1
-2 3.08627 3.08627 2 3 1
-1.99995 3.10584 3.10584 2 3 1
-1.99979 3.12542 3.12542 2 3 1
-1.99954 3.145 3.145 2 3 1
-1.9992 3.16459 3.16459 2 3 1
-1.99875 3.18418 3.18418 2 3 1
-1.99822 3.20379 3.20379 2 3 1
-1.9976 3.22339 3.22339 2 3 1
-1.9969 3.243 3.243 2 3 1
-1.9961 3.26262 3.26262 2 3 1
-1.99523 3.28224 3.28224 2 3 1
-1.99428 3.30186 3.30186 2 3 1
-1.99325 3.32148 3.32148 2 3 1
-1.99214 3.34111 3.34111 2 3 1
-1.99096 3.36074 3.36074 2 3 1
-1.9897 3.38037 3.38037 2 3 1
-1.98838 3.4 3.4 2 3 1
-1.98698 3.41963 3.41963 2 3 1
-1.98552 3.43927 3.43927 2 3 1
-1.98399 3.4589 3.4589 2 3 1
-1.9824 3.47853 3.47853 2 3 1
-1.98074 3.49816 3.49816 2 3 1
-1.97902 3.5178 3.5178 2 3 1
-1.97725 3.53743 3.53743 2 3 1
-1.97541 3.55706 3.55706 2 3 1
-1.97351 3.57669 3.57669 2 3 1
-1.97156 3.59632 3.59632 2 3 1
-1.96956 3.61595 3.61595 2 3 1
-1.9675 3.63558 3.63558 2 3 1
-1.96538 3.6552 3.6552 2 3 1
-1.96322 3.67483 3.67483 2 3 1
-1.961 3.69445 3.69445 2 3 1
-1.95874 3.71407 3.71407 2 3 1
-1.95643 3.73369 3.73369 2 3 1
-1.95407 3.75331 3.75331 2 3 1
-1.95166 3.77292 3.77292 2 3 1
-1.94921 3.79253 3.79253 2 3 1
-1.94671 3.81214 3.81214 2 3 1
-1.94417 3.83175 3.83175 2 3 1
-1.94158 3.85136 3.85136 2 3 1
-1.93896 3.87096 3.87096 2 3 1
-1.93629 3.89056 3.89056 2 3 1
-1.93358 3.91016 3.91016 2 3 1
-1.93084 3.92976 3.92976 2 3 1
-1.92805 3.94935 3.94935 2 3 1
-1.92523 3.96894 3.96894 2 3 1
-1.92237 3.98853 3.98853 2 3 1
-1.91947 4.00812 4.00812 2 3 1
-1.91653 4.0277 4.0277 2 3 1
-1.91356 4.04728 4.04728 2 3 1
-1.91056 4.06686 4.06686 2 3 1
-1.90752 4.08643 4.08643 2 3 1
-1.90445 4.106 4.106 2 3 1
-1.90135 4.12557 4.12557 2 3 1
-1.89821 4.14514 4.14514 2 3 1
-1.89505 4.16471 4.16471 2 3 1
-1.89185 4.18427 4.18427 2 3 1
-1.88862 4.20383 4.20383 2 3 1
-1.88536 4.22338 4.22338 2 3 1
-1.88207 4.24293 4.24293 2 3 1
-1.87876 4.26248 4.26248 2 3 1
-1.87544 4.28203 4.28203 2 3 1
-1.87207 4.30158 4.30158 2 3 1
-1.86867 4.32112 4.32112 2 3 1
-1.86524 4.34066 4.34066 2 3 1
-1.86178 4.3602 4.3602 2 3 1
-1.8583 4.37973 4.37973 2 3 1
-1.8548 4.39926 4.39926 2 3 1
-1.85127 4.41879 4.41879 2 3 1
-1.84772 4.43832 4.43832 2 3 1
-1.84414 4.45784 4.45784 2 3 1
-1.84053 4.47736 4.47736 2 3 1
-1.83691 4.49688 4.49688 2 3 1
-1.83326 4.5164 4.5164 2 3 1
-1.82959 4.53591 4.53591 2 3 1
-1.82589 4.55542 4.55542 2 3 1
-1.82218 4.57493 4.57493 2 3 1
-1.81844 4.59443 4.59443 2 3 1
-1.81468 4.61393 4.61393 2 3 1
-1.8109 4.63343 4.63343 2 3 1
-1.80711 4.65293 4.65293 2 3 1
-1.80329 4.67243 4.67243 2 3 1
-1.79945 4.69192 4.69192 2 3 1
-1.79559 4.71141 4.71141 2 3 1
-1.79171 4.7309 4.7309 2 3 1
-1.78781 4.75038 4.75038 2 3 1
-1.7839 4.76987 4.76987 2 3 1
-1.77996 4.78935 4.78935 2 3 1
-1.77601 4.80882 4.80882 2 3 1
-1.77204 4.8283 4.8283 2 3 1
-1.76806 4.84777 4.84777 2 3 1
-1.76405 4.86725 4.86725 2 3 1
-1.76003 4.88671 4.88671 2 3 1
-1.756 4.90618 4.90618 2 3 1
-1.75194 4.92565 4.92565 2 3 1
-1.74787 4.94511 4.94511 2 3 1
-1.74379 4.96457 4.96457 2 3 1
-1.73969 4.98403 4.98403 2 3 1
-1.73557 5.00348 5.00348 2 3 1
-1.73144 5.02294 5.02294 2 3 1
-1.72729 5.04239 5.04239 2 3 1
-1.72313 5.06184 5.06184 2 3 1
-1.71896 5.08129 5.08129 2 3 1
-1.71477 5.10073 5.10073 2 3 1
-1.71056 5.12018 5.12018 2 3 1
-1.70635 5.13962 5.13962 2 3 1
-1.70211 5.15906 5.15906 2 3 1
-1.69787 5.17849 5.17849 2 3 1
-1.69361 5.19793 5.19793 2 3 1
-1.68934 5.21736 5.21736 2 3 1
-1.68506 5.2368 5.2368 2 3 1
-1.68076 5.25623 5.25623 2 3 1
-1.67645 5.27566 5.27566 2 3 1
-1.67213 5.29508 5.29508 2 3 1
-1.6678 5.31451 5.31451 2 3 1
-1.66346 5.33393 5.33393 2 3 1
-1.6591 5.35335 5.35335 2 3 1
-1.65473 5.37277 5.37277 2 3 1
-1.65035 5.39219 5.39219 2 3 1
-1.64596 5.4116 5.4116 2 3 1
-1.64156 5.43102 5.43102 2 3 1
-1.63715 5.45043 5.45043 2 3 1
-1.63273 5.46984 5.46984 2 3 1
-1.62829 5.48925 5.48925 2 3 1
-1.62385 5.50866 5.50866 2 3 1
-1.6194 5.52807 5.52807 2 3 1
-1.61493 5.54747 5.54747 2 3 1
-1.61046 5.56687 5.56687 2 3 1
-1.60598 5.58628 5.58628 2 3 1
-1.60148 5.60568 5.60568 2 3 1
-1.59698 5.62508 5.62508 2 3 1
-1.59247 5.64447 5.64447 2 3 1
-1.58795 5.66387 5.66387 2 3 1
-1.58342 5.68326 5.68326 2 3 1
-1.57888 5.70266 5.70266 2 3 1
-1.57433 5.72205 5.72205 2 3 1
-1.56977 5.74144 5.74144 2 3 1
-1.56521 5.76083 5.76083 2 3 1
-1.56063 5.78021 5.78021 2 3 1
-1.55605 5.7996 5.7996 2 3 1
-1.55146 5.81898 5.81898 2 3 1
-1.54686 5.83837 5.83837 2 3 1
-1.54225 5.85775 5.85775 2 3 1
-1.53764 5.87713 5.87713 2 3 1
-1.53302 5.89651 5.89651 2 3 1
-1.52839 5.91589 5.91589 2 3 1
-1.52375 5.93527 5.93527 2 3 1
-1.5191 5.95464 5.95464 2 3 1
-1.51445 5.97402 5.97402 2 3 1
-1.50979 5.99339 5.99339 2 3 1
-1.50513 6.01276 6.01276 2 3 1
-1.50045 6.03213 6.03213 2 3 1
-1.49577 6.0515 6.0515 2 3 1
-1.49108 6.07087 6.07087 2 3 1
-1.48639 6.09024 6.09024 2 3 1
-1.48169 6.10961 6.10961 2 3 1
-1.47698 6.12897 6.12897 2 3 1
-1.47227 6.14834 6.14834 2 3 1
-1.46755 6.1677 6.1677 2 3 1
-1.46282 6.18707 6.18707 2 3 1
-1.45809 6.20643 6.20643 2 3 1
-1.45335 6.22579 6.22579 2 3 1
-1.44861 6.24515 6.24515 2 3 1
-1.44386 6.26451 6.26451 2 3 1
-1.4391 6.28387 6.28387 2 3 1
-1.43434 6.30322 6.30322 2 3 1
-1.42957 6.32258 6.32258 2 3 1
-1.4248 6.34193 6.34193 2 3 1
-1.42002 6.36129 6.36129 2 3 1
-1.41524 6.38064 6.38064 2 3 1
-1.41045 6.39999 6.39999 2 3 1
-1.40565 6.41935 6.41935 2 3 1
-1.40085 6.4387 6.4387 2 3 1
-1.39605 6.45805 6.45805 2 3 1
-1.39124 6.4774 6.4774 2 3 1
-1.38642 6.49674 6.49674 2 3 1
-1.3816 6.51609 6.51609 2 3 1
-1.37678 6.53544 6.53544 2 3 1
-1.37195 6.55479 6.55479 2 3 1
-1.36712 6.57413 6.57413 2 3 1
-1.36228 6.59348 6.59348 2 3 1
-1.35744 6.61282 6.61282 2 3 1
-1.35259 6.63216 6.63216 2 3 1
-1.34774 6.6515 6.6515 2 3 1
-1.34288 6.67085 6.67085 2 3 1
-1.33802 6.69019 6.69019 2 3 1
-1.33316 6.70953 6.70953 2 3 1
-1.32829 6.72887 6.72887 2 3 1
-1.32342 6.74821 6.74821 2 3 1
-1.31854 6.76755 6.76755 2 3 1
-1.31366 6.78688 6.78688 2 3 1
-1.30877 6.80622 6.80622 2 3 1
-1.30388 6.82556 6.82556 2 3 1
-1.29899 6.84489 6.84489 2 3 1
-1.2941 6.86423 6.86423 2 3 1
-1.2892 6.88356 6.88356 2 3 1
-1.28429 6.9029 6.9029 2 3 1
-1.27939 6.92223 6.92223 2 3 1
-1.27448 6.94156 6.94156 2 3 1
-1.26956 6.9609 6.9609 2 3 1
-1.26465 6.98023 6.98023 2 3 1
-1.25973 6.99956 6.99956 2 3 1
-1.2548 7.01889 7.01889 2 3 1
-1.24988 7.03822 7.03822 2 3 1
-1.24495 7.05755 7.05755 2 3 1
-1.24001 7.07688 7.07688 2 3 1
-1.23508 7.09621 7.09621 2 3 1
-1.23014 7.11554 7.11554 2 3 1
-1.22519 7.13487 7.13487 2 3 1
-1.22025 7.15419 7.15419 2 3 1
-1.2153 7.17352 7.17352 2 3 1
-1.21035 7.19285 7.19285 2 3 1
-1.2054 7.21217 7.21217 2 3 1
-1.20044 7.2315 7.2315 2 3 1
-1.19548 7.25083 7.25083 2 3 1
-1.19052 7.27015 7.27015 2 3 1
-1.18555 7.28948 7.28948 2 3 1
-1.18059 7.3088 7.3088 2 3 1
-1.17562 7.32812 7.32812 2 3 1
-1.17064 7.34745 7.34745 2 3 1
-1.16567 7.36677 7.36677 2 3 1
-1.16069 7.38609 7.38609 2 3 1
-1.15571 7.40542 7.40542 2 3 1
-1.15073 7.42474 7.42474 2 3 1
-1.14575 7.44406 7.44406 2 3 1
-1.14076 7.46338 7.46338 2 3 1
-1.13577 7.4827 7.4827 2 3 1
-1.13078 7.50203 7.50203 2 3 1
-1.12579 7.52135 7.52135 2 3 1
-1.12079 7.54067 7.54067 2 3 1
-1.1158 7.55999 7.55999 2 3 1
-1.1108 7.57931 7.57931 2 3 1
-1.1058 7.59863 7.59863 2 3 1
-1.10079 7.61795 7.61795 2 3 1
-1.09579 7.63727 7.63727 2 3 1
-1.09078 7.65658 7.65658 2 3 1
-1.08577 7.6759 7.6759 2 3 1
-1.08076 7.69522 7.69522 2 3 1
-1.07575 7.71454 7.71454 2 3 1
-1.07074 7.73386 7.73386 2 3 1
-1.06572 7.75318 7.75318 2 3 1
-1.06071 7.77249 7.77249 2 3 1
-1.05569 7.79181 7.79181 2 3 1
-1.05067 7.81113 7.81113 2 3 1
-1.04564 7.83044 7.83044 2 3 1
-1.04062 7.84976 7.84976 2 3 1
-1.0356 7.86908 7.86908 2 3 1
-1.03057 7.88839 7.88839 2 3 1
-1.02554 7.90771 7.90771 2 3 1
-1.02051 7.92703 7.92703 2 3 1
-1.01548 7.94634 7.94634 2 3 1
-1.01045 7.96566 7.96566 2 3 1
-1.00541 7.98497 7.98497 2 3 1
-1.00038 8.00429 8.00429 2 3 1
-0.995343 8.02361 8.02361 2 3 1
-0.990306 8.04292 8.04292 2 3 1
-0.985267 8.06224 8.06224 2 3 1
-0.980227 8.08155 8.08155 2 3 1
-0.975186 8.10087 8.10087 2 3 1
-0.970144 8.12018 8.12018 2 3 1
-0.965101 8.1395 8.1395 2 3 1
-0.960056 8.15881 8.15881 2 3 1
-0.955011 8.17813 8.17813 2 3 1
-0.949964 8.19744 8.19744 2 3 1
-0.944917 8.21675 8.21675 2 3 1
-0.939868 8.23607 8.23607 2 3 1
-0.934819 8.25538 8.25538 2 3 1
-0.929768 8.2747 8.2747 2 3 1
-0.924717 8.29401 8.29401 2 3 1
-0.919665 8.31333 8.31333 2 3 1
-0.914612 8.33264 8.33264 2 3 1
-0.909558 8.35196 8.35196 2 3 1
-0.904503 8.37127 8.37127 2 3 1
-0.899448 8.39058 8.39058 2 3 1
-0.894392 8.4099 8.4099 2 3 1
-0.889335 8.42921 8.42921 2 3 1
-0.884277 8.44853 8.44853 2 3 1
-0.879219 8.46784 8.46784 2 3 1
-0.87416 8.48715 8.48715 2 3 1
-0.8691 8.50647 8.50647 2 3 1
-0.864039 8.52578 8.52578 2 3 1
-0.858978 8.5451 8.5451 2 3 1
-0.853917 8.56441 8.56441 2 3 1
-0.848855 8.58372 8.58372 2 3 1
-0.843792 8.60304 8.60304 2 3 1
-0.838729 8.62235 8.62235 2 3 1
-0.833665 8.64167 8.64167 2 3 1
-0.828601 8.66098 8.66098 2 3 1
-0.823536 8.68029 8.68029 2 3 1
-0.818471 8.69961 8.69961 2 3 1
-0.813405 8.71892 8.71892 2 3 1
-0.808339 8.73824 8.73824 2 3 1
-0.803273 8.75755 8.75755 2 3 1
-0.798206 8.77687 8.77687 2 3 1
-0.793139 8.79618 8.79618 2 3 1
-0.788071 8.8155 8.8155 2 3 1
-0.783004 8.83481 8.83481 2 3 1
-0.777935 8.85412 8.85412 2 3 1
-0.772867 8.87344 8.87344 2 3 1
-0.767798 8.89275 8.89275 2 3 1
-0.76273 8.91207 8.91207 2 3 1
-0.75766 8.93138 8.93138 2 3 1
-0.752591 8.9507 8.9507 2 3 1
-0.747522 8.97001 8.97001 2 3 1
-0.742452 8.98933 8.98933 2 3 1
-0.737382 9.00865 9.00865 2 3 1
-0.732312 9.02796 9.02796 2 3 1
-0.727242 9.04728 9.04728 2 3 1
-0.722172 9.06659 9.06659 2 3 1
-0.717101 9.08591 9.08591 2 3 1
-0.712031 9.10522 9.10522 2 3 1
-0.70696 9.12454 9.12454 2 3 1
-0.70189 9.14386 9.14386 2 3 1
-0.696819 9.16317 9.16317 2 3 1
-0.691748 9.18249 9.18249 2 3 1
-0.686678 9.20181 9.20181 2 3 1
-0.681607 9.22112 9.22112 2 3 1
-0.676537 9.24044 9.24044 2 3 1
-0.671466 9.25976 9.25976 2 3 1
-0.666396 9.27907 9.27907 2 3 1
-0.661325 9.29839 9.29839 2 3 1
-0.656255 9.31771 9.31771 2 3 1
-0.651185 9.33703 9.33703 2 3 1
-0.646115 9.35634 9.35634 2 3 1
-0.641045 9.37566 9.37566 2 3 1
-0.635975 9.39498 9.39498 2 3 1
-0.630905 9.4143 9.4143 2 3 1
-0.625835 9.43362 9.43362 2 3 1
-0.620766 9.45293 9.45293 2 3 1
-0.615697 9.47225 9.47225 2 3 1
-0.610628 9.49157 9.49157 2 3 1
-0.605559 9.51089 9.51089 2 3 1
-0.600491 9.53021 9.53021 2 3 1
-0.595422 9.54953 9.54953 2 3 1
-0.590354 9.56885 9.56885 2 3 1
-0.585287 9.58817 9.58817 2 3 1
-0.580219 9.60749 9.60749 2 3 1
-0.575152 9.62681 9.62681 2 3 1
-0.570085 9.64613 9.64613 2 3 1
-0.565019 9.66545 9.66545 2 3 1
-0.559952 9.68477 9.68477 2 3 1
-0.554886 9.70409 9.70409 2 3 1
-0.549821 9.72341 9.72341 2 3 1
-0.544756 9.74273 9.74273 2 3 1
-0.539691 9.76206 9.76206 2 3 1
-0.534627 9.78138 9.78138 2 3 1
-0.529563 9.8007 9.8007 2 3 1
-0.524499 9.82002 9.82002 2 3 1
-0.519436 9.83934 9.83934 2 3 1
-0.514373 9.85867 9.85867 2 3 1
-0.509311 9.87799 9.87799 2 3 1
-0.504249 9.89731 9.89731 2 3 1
-0.499188 9.91664 9.91664 2 3 1
-0.494127 9.93596 9.93596 2 3 1
-0.489066 9.95528 9.95528 2 3 1
-0.484006 9.97461 9.97461 2 3 1
-0.478947 9.99393 9.99393 2 3 1
-0.473888 10.0133 10.0133 2 3 1
-0.46883 10.0326 10.0326 2 3 1
-0.463772 10.0519 10.0519 2 3 1
-0.458714 10.0712 10.0712 2 3 1
-0.453658 10.0906 10.0906 2 3 1
-0.448601 10.1099 10.1099 2 3 1
-0.443546 10.1292 10.1292 2 3 1
-0.438491 10.1485 10.1485 2 3 1
-0.433436 10.1679 10.1679 2 3 1
-0.428382 10.1872 10.1872 2 3 1
-0.423329 10.2065 10.2065 2 3 1
-0.418276 10.2258 10.2258 2 3 1
-0.413224 10.2452 10.2452 2 3 1
-0.408173 10.2645 10.2645 2 3 1
-0.403122 10.2838 10.2838 2 3 1
-0.398072 10.3032 10.3032 2 3 1
-0.393023 10.3225 10.3225 2 3 1
-0.387974 10.3418 10.3418 2 3 1
-0.382926 10.3611 10.3611 2 3 1
-0.377879 10.3805 10.3805 2 3 1
-0.372832 10.3998 10.3998 2 3 1
-0.367786 10.4191 10.4191 2 3 1
-0.362741 10.4385 10.4385 2 3 1
-0.357696 10.4578 10.4578 2 3 1
-0.352652 10.4771 10.4771 2 3 1
-0.347609 10.4965 10.4965 2 3 1
-0.342567 10.5158 10.5158 2 3 1
-0.337525 10.5351 10.5351 2 3 1
-0.332484 10.5544 10.5544 2 3 1
-0.327444 10.5738 10.5738 2 3 1
-0.322405 10.5931 10.5931 2 3 1
-0.317366 10.6124 10.6124 2 3 1
-0.312329 10.6318 10.6318 2 3 1
-0.307292 10.6511 10.6511 2 3 1
-0.302256 10.6704 10.6704 2 3 1
-0.29722 10.6898 10.6898 2 3 1
-0.292186 10.7091 10.7091 2 3 1
-0.287152 10.7284 10.7284 2 3 1
-0.282119 10.7478 10.7478 2 3 1
-0.277087 10.7671 10.7671 2 3 1
-0.272056 10.7864 10.7864 2 3 1
-0.267026 10.8058 10.8058 2 3 1
-0.261996 10.8251 10.8251 2 3 1
-0.256968 10.8445 10.8445 2 3 1
-0.25194 10.8638 10.8638 2 3 1
-0.246913 10.8831 10.8831 2 3 1
-0.241887 10.9025 10.9025 2 3 1
-0.236862 10.9218 10.9218 2 3 1
-0.231838 10.9411 10.9411 2 3 1
-0.226814 10.9605 10.9605 2 3 1
-0.221792 10.9798 10.9798 2 3 1
-0.216771 10.9992 10.9992 2 3 1
-0.21175 11.0185 11.0185 2 3 1
-0.20673 11.0378 11.0378 2 3 1
-0.201712 11.0572 11.0572 2 3 1
-0.196694 11.0765 11.0765 2 3 1
-0.191677 11.0959 11.0959 2 3 1
-0.186661 11.1152 11.1152 2 3 1
-0.181646 11.1345 11.1345 2 3 1
-0.176633 11.1539 11.1539 2 3 1
-0.17162 11.1732 11.1732 2 3 1
-0.166608 11.1926 11.1926 2 3 1
-0.161597 11.2119 11.2119 2 3 1
-0.156587 11.2312 11.2312 2 3 1
-0.151578 11.2506 11.2506 2 3 1
-0.14657 11.2699 11.2699 2 3 1
-0.141562 11.2893 11.2893 2 3 1
-0.136556 11.3086 11.3086 2 3 1
-0.131551 11.328 11.328 2 3 1
-0.126547 11.3473 11.3473 2 3 1
-0.121544 11.3667 11.3667 2 3 1
-0.116543 11.386 11.386 2 3 1
-0.111542 11.4053 11.4053 2 3 1
-0.106542 11.4247 11.4247 2 3 1
-0.101543 11.444 11.444 2 3 1
-0.0965451 11.4634 11.4634 2 3 1
-0.0915483 11.4827 11.4827 2 3 1
-0.0865526 11.5021 11.5021 2 3 1
-0.081558 11.5214 11.5214 2 3 1
-0.0765645 11.5408 11.5408 2 3 1
-0.071572 11.5601 11.5601 2 3 1
-0.0665805 11.5795 11.5795 2 3 1
-0.0615902 11.5988 11.5988 2 3 1
-0.0566009 11.6182 11.6182 2 3 1
-0.0516128 11.6375 11.6375 2 3 1
-0.0466257 11.6569 11.6569 2 3 1
-0.0416397 11.6762 11.6762 2 3 1
-0.0366549 11.6956 11.6956 2 3 1
-0.0316711 11.7149 11.7149 2 3 1
-0.0266884 11.7343 11.7343 2 3 1
-0.0217069 11.7536 11.7536 2 3 1
-0.0167264 11.773 11.773 2 3 1
-0.0117471 11.7923 11.7923 2 3 1
-0.00676895 11.8117 11.8117 2 3 1
-0.0017919 11.831 11.831 2 3 1
0.00318401 11.8504 11.8504 2 3 1
0.00815879 11.8697 11.8697 2 3 1
0.0131324 11.8891 11.8891 2 3 1
0.0181049 11.9084 11.9084 2 3 1
0.0230762 11.9278 11.9278 2 3 1
0.0280464 11.9472 11.9472 2 3 1
0.0330155 11.9665 11.9665 2 3 1
0.0379833 11.9859 11.9859 2 3 1
0.04295 12.0052 12.0052 2 3 1
0.0479156 12.0246 12.0246 2 3 1
0.0528799 12.0439 12.0439 2 3 1
0.0578431 12.0633 12.0633 2 3 1
0.0628051 12.0827 12.0827 2 3 1
0.0677659 12.102 12.102 2 3 1
0.0727256 12.1214 12.1214 2 3 1
0.077684 12.1407 12.1407 2 3 1
0.0826412 12.1601 12.1601 2 3 1
0.0875973 12.1794 12.1794 2 3 1
0.0925522 12.1988 12.1988 2 3 1
0.0975058 12.2182 12.2182 2 3 1
0.102458 12.2375 12.2375 2 3 1
0.107409 12.2569 12.2569 2 3 1
0.112359 12.2762 12.2762 2 3 1
0.117308 12.2956 12.2956 2 3 1
0.122256 12.315 12.315 2 3 1
0.127202 12.3343 12.3343 2 3 1
0.132147 12.3537 12.3537 2 3 1
0.137091 12.3731 12.3731 2 3 1
0.142034 12.3924 12.3924 2 3 1
0.146975 12.4118 12.4118 2 3 1
0.151916 12.4312 12.4312 2 3 1
0.156855 12.4505 12.4505 2 3 1
0.161792 12.4699 12.4699 2 3 1
0.166729 12.4892 12.4892 2 3 1
0.171664 12.5086 12.5086 2 3 1
0.176598 12.528 12.528 2 3 1
0.181531 12.5473 12.5473 2 3 1
0.186462 12.5667 12.5667 2 3 1
0.191392 12.5861 12.5861 2 3 1
0.196321 12.6054 12.6054 2 3 1
0.201249 12.6248 12.6248 2 3 1
0.206175 12.6442 12.6442 2 3 1
0.2111 12.6635 12.6635 2 3 1
0.216024 12.6829 12.6829 2 3 1
0.220947 12.7023 12.7023 2 3 1
0.225868 12.7217 12.7217 2 3 1
0.230788 12.741 12.741 2 3 1
0.235707 12.7604 12.7604 2 3 1
0.240624 12.7798 12.7798 2 3 1
0.24554 12.7991 12.7991 2 3 1
0.250455 12.8185 12.8185 2 3 1
0.255369 12.8379 12.8379 2 3 1
0.260281 12.8573 12.8573 2 3 1
0.265192 12.8766 12.8766 2 3 1
0.270102 12.896 12.896 2 3 1
0.27501 12.9154 12.9154 2 3 1
0.279917 12.9347 12.9347 2 3 1
0.284823 12.9541 12.9541 2 3 1
0.289727 12.9735 12.9735 2 3 1
0.294631 12.9929 12.9929 2 3 1
0.299532 13.0122 13.0122 2 3 1
0.304433 13.0316 13.0316 2 3 1
0.309332 13.051 13.051 2 3 1
0.31423 13.0704 13.0704 2 3 1
0.319126 13.0898 13.0898 2 3 1
0.324022 13.1091 13.1091 2 3 1
0.328916 13.1285 13.1285 2 3 1
0.333808 13.1479 13.1479 2 3 1
0.338699 13.1673 13.1673 2 3 1
0.343589 13.1866 13.1866 2 3 1
0.348478 13.206 13.206 2 3 1
0.353365 13.2254 13.2254 2 3 1
0.358251 13.2448 13.2448 2 3 1
0.363136 13.2642 13.2642 2 3 1
0.368019 13.2835 13.2835 2 3 1
0.372901 13.3029 13.3029 2 3 1
0.377781 13.3223 13.3223 2 3 1
0.38266 13.3417 13.3417 2 3 1
0.387538 13.3611 13.3611 2 3 1
0.392415 13.3805 13.3805 2 3 1
0.39729 13.3998 13.3998 2 3 1
0.402164 13.4192 13.4192 2 3 1
0.407036 13.4386 13.4386 2 3 1
0.411907 13.458 13.458 2 3 1
0.416777 13.4774 13.4774 2 3 1
0.421645 13.4968 13.4968 2 3 1
0.426512 13.5161 13.5161 2 3 1
0.431378 13.5355 13.5355 2 3 1
0.436242 13.5549 13.5549 2 3 1
0.441105 13.5743 13.5743 2 3 1
0.445966 13.5937 13.5937 2 3 1
0.450826 13.6131 13.6131 2 3 1
0.455685 13.6325 13.6325 2 3 1
0.460542 13.6518 13.6518 2 3 1
0.465399 13.6712 13.6712 2 3 1
0.470253 13.6906 13.6906 2 3 1
0.475106 13.71 13.71 2 3 1
0.479958 13.7294 13.7294 2 3 1
0.484809 13.7488 13.7488 2 3 1
0.489658 13.7682 13.7682 2 3 1
0.494506 13.7876 13.7876 2 3 1
0.499352 13.807 13.807 2 3 1
0.504197 13.8264 13.8264 2 3 1
0.509041 13.8457 13.8457 2 3 1
0.513883 13.8651 13.8651 2 3 1
0.518724 13.8845 13.8845 2 3 1
0.523563 13.9039 13.9039 2 3 1
0.528401 13.9233 13.9233 2 3 1
0.533238 13.9427 13.9427 2 3 1
0.538073 13.9621 13.9621 2 3 1
0.542907 13.9815 13.9815 2 3 1
0.547739 14.0009 14.0009 2 3 1
0.55257 14.0203 14.0203 2 3 1
0.5574 14.0397 14.0397 2 3 1
0.562228 14.0591 14.0591 2 3 1
0.567055 14.0785 14.0785 2 3 1
0.57188 14.0979 14.0979 2 3 1
0.576704 14.1173 14.1173 2 3 1
0.581527 14.1367 14.1367 2 3 1
0.586348 14.1561 14.1561 2 3 1
0.591168 14.1755 14.1755 2 3 1
0.595986 14.1949 14.1949 2 3 1
0.600803 14.2143 14.2143 2 3 1
0.605619 14.2337 14.2337 2 3 1
0.610433 14.2531 14.2531 2 3 1
0.615246 14.2725 14.2725 2 3 1
0.620057 14.2919 14.2919 2 3 1
0.624867 14.3113 14.3113 2 3 1
0.629676 14.3307 14.3307 2 3 1
0.634483 14.3501 14.3501 2 3 1
0.639289 14.3695 14.3695 2 3 1
0.644093 14.3889 14.3889 2 3 1
0.648896 14.4083 14.4083 2 3 1
0.653697 14.4277 14.4277 2 3 1
0.658497 14.4471 14.4471 2 3 1
0.663296 14.4665 14.4665 2 3 1
0.668093 14.4859 14.4859 2 3 1
0.672889 14.5053 14.5053 2 3 1
0.677683 14.5247 14.5247 2 3 1
0.682476 14.5441 14.5441 2 3 1
0.687267 14.5635 14.5635 2 3 1
0.692057 14.5829 14.5829 2 3 1
0.696846 14.6023 14.6023 2 3 1
0.701633 14.6217 14.6217 2 3 1
0.706419 14.6411 14.6411 2 3 1
0.711203 14.6605 14.6605 2 3 1
0.715986 14.68 14.68 2 3 1
0.720768 14.6994 14.6994 2 3 1
0.725548 14.7188 14.7188 2 3 1
0.730327 14.7382 14.7382 2 3 1
0.735104 14.7576 14.7576 2 3 1
0.739879 14.777 14.777 2 3 1
0.744654 14.7964 14.7964 2 3 1
0.749427 14.8158 14.8158 2 3 1
0.754198 14.8352 14.8352 2 3 1
0.758968 14.8546 14.8546 2 3 1
0.763737 14.8741 14.8741 2 3 1
0.768504 14.8935 14.8935 2 3 1
0.77327 14.9129 14.9129 2 3 1
0.778034 14.9323 14.9323 2 3 1
0.782797 14.9517 14.9517 2 3 1
0.787558 14.9711 14.9711 2 3 1
0.792318 14.9905 14.9905 2 3 1
0.797077 15.01 15.01 2 3 1
0.801834 15.0294 15.0294 2 3 1
0.806589 15.0488 15.0488 2 3 1
0.811344 15.0682 15.0682 2 3 1
0.816096 15.0876 15.0876 2 3 1
0.820848 15.107 15.107 2 3 1
0.825598 15.1264 15.1264 2 3 1
0.830346 15.1459 15.1459 2 3 1
0.835093 15.1653 15.1653 2 3 1
0.839839 15.1847 15.1847 2 3 1
0.844583 15.2041 15.2041 2 3 1
0.849325 15.2235 15.2235 2 3 1
0.854067 15.243 15.243 2 3 1
0.858806 15.2624 15.2624 2 3 1
0.863545 15.2818 15.2818 2 3 1
0.868282 15.3012 15.3012 2 3 1
0.873017 15.3206 15.3206 2 3 1
0.877751 15.3401 15.3401 2 3 1
0.882484 15.3595 15.3595 2 3 1
0.887215 15.3789 15.3789 2 3 1
0.891944 15.3983 15.3983 2 3 1
0.896672 15.4177 15.4177 2 3 1
0.901399 15.4372 15.4372 2 3 1
0.906125 15.4566 15.4566 2 3 1
0.910848 15.476 15.476 2 3 1
0.915571 15.4954 15.4954 2 3 1
0.920292 15.5149 15.5149 2 3 1
0.925011 15.5343 15.5343 2 3 1
0.929729 15.5537 15.5537 2 3 1
0.934446 15.5731 15.5731 2 3 1
0.939161 15.5926 15.5926 2 3 1
0.943875 15.612 15.612 2 3 1
0.948587 15.6314 15.6314 2 3 1
0.953298 15.6508 15.6508 2 3 1
0.958007 15.6703 15.6703 2 3 1
0.962715 15.6897 15.6897 2 3 1
0.967422 15.7091 15.7091 2 3 1
0.972127 15.7286 15.7286 2 3 1
0.97683 15.748 15.748 2 3 1
0.981532 15.7674 15.7674 2 3 1
0.986233 15.7868 15.7868 2 3 1
0.990932 15.8063 15.8063 2 3 1
0.99563 15.8257 15.8257 2 3 1
1.00033 15.8451 15.8451 2 3 1
1.00502 15.8646 15.8646 2 3 1
1.00971 15.884 15.884 2 3 1
1.01441 15.9034 15.9034 2 3 1
1.0191 15.9229 15.9229 2 3 1
1.02379 15.9423 15.9423 2 3 1
1.02847 15.9617 15.9617 2 3 1
1.03316 15.9812 15.9812 2 3 1
1.03784 16.0006 16.0006 2 3 1
1.04253 16.02 16.02 2 3 1
1.04721 16.0395 16.0395 2 3 1
1.05189 16.0589 16.0589 2 3 1
1.05657 16.0783 16.0783 2 3 1
1.06125 16.0978 16.0978 2 3 1
1.06592 16.1172 16.1172 2 3 1
1.0706 16.1367 16.1367 2 3 1
1.07527 16.1561 16.1561 2 3 1
1.07994 16.1755 16.1755 2 3 1
1.08461 16.195 16.195 2 3 1
1.08928 16.2144 16.2144 2 3 1
1.09395 16.2338 16.2338 2 3 1
1.09861 16.2533 16.2533 2 3 1
1.10328 16.2727 16.2727 2 3 1
1.10794 16.2922 16.2922 2 3 1
1.1126 16.3116 16.3116 2 3 1
1.11726 16.331 16.331 2 3 1
1.12192 16.3505 16.3505 2 3 1
1.12658 16.3699 16.3699 2 3 1
1.13123 16.3894 16.3894 2 3 1
1.13589 16.4088 16.4088 2 3 1
1.14054 16.4282 16.4282 2 3 1
1.14519 16.4477 16.4477 2 3 1
1.14984 16.4671 16.4671 2 3 1
1.15449 16.4866 16.4866 2 3 1
1.15914 16.506 16.506 2 3 1
1.16378 16.5255 16.5255 2 3 1
1.16842 16.5449 16.5449 2 3 1
1.17307 16.5643 16.5643 2 3 1
1.17771 16.5838 16.5838 2 3 1
1.18235 16.6032 16.6032 2 3 1
1.18699 16.6227 16.6227 2 3 1
1.19162 16.6421 16.6421 2 3 1
1.19626 16.6616 16.6616 2 3 1
1.20089 16.681 16.681 2 3 1
1.20552 16.7005 16.7005 2 3 1
1.21015 16.7199 16.7199 2 3 1
1.21478 16.7394 16.7394 2 3 1
1.21941 16.7588 16.7588 2 3 1
1.22404 16.7783 16.7783 2 3 1
1.22866 16.7977 16.7977 2 3 1
1.23329 16.8172 16.8172 2 3 1
1.23791 16.8366 16.8366 2 3 1
1.24253 16.8561 16.8561 2 3 1
1.24715 16.8755 16.8755 2 3 1
1.25177 16.895 16.895 2 3 1
1.25638 16.9144 16.9144 2 3 1
1.261 16.9339 16.9339 2 3 1
1.26561 16.9533 16.9533 2 3 1
1.27022 16.9728 16.9728 2 3 1
1.27484 16.9922 16.9922 2 3 1
1.27944 17.0117 17.0117 2 3 1
1.28405 17.0311 17.0311 2 3 1
1.28866 17.0506 17.0506 2 3 1
1.29326 17.07 17.07 2 3 1
1.29787 17.0895 17.0895 2 3 1
1.30247 17.109 17.109 2 3 1
1.30707 17.1284 17.1284 2 3 1
1.31167 17.1479 17.1479 2 3 1
1.31627 17.1673 17.1673 2 3 1
1.32086 17.1868 17.1868 2 3 1
1.32546 17.2062 17.2062 2 3 1
1.33005 17.2257 17.2257 2 3 1
1.33464 17.2451 17.2451 2 3 1
1.33923 17.2646 17.2646 2 3 1
1.34382 17.2841 17.2841 2 3 1
1.34841 17.3035 17.3035 2 3 1
1.35299 17.323 17.323 2 3 1
1.35758 17.3424 17.3424 2 3 1
1.36216 17.3619 17.3619 2 3 1
1.36674 17.3814 17.3814 2 3 1
1.37132 17.4008 17.4008 2 3 1
1.3759 17.4203 17.4203 2 3 1
1.38048 17.4397 17.4397 2 3 1
1.38506 17.4592 17.4592 2 3 1
1.38963 17.4787 17.4787 2 3 1
1.3942 17.4981 17.4981 2 3 1
1.39877 17.5176 17.5176 2 3 1
1.40334 17.537 17.537 2 3 1
1.40791 17.5565 17.5565 2 3 1
1.41248 17.576 17.576 2 3 1
1.41705 17.5954 17.5954 2 3 1
1.42161 17.6149 17.6149 2 3 1
1.42617 17.6344 17.6344 2 3 1
1.43074 17.6538 17.6538 2 3 1
1.4353 17.6733 17.6733 2 3 1
1.43985 17.6928 17.6928 2 3 1
1.44441 17.7122 17.7122 2 3 1
1.44897 17.7317 17.7317 2 3 1
1.45352 17.7512 17.7512 2 3 1
1.45807 17.7706 17.7706 2 3 1
1.46263 17.7901 17.7901 2 3 1
1.46718 17.8096 17.8096 2 3 1
1.47172 17.829 17.829 2 3 1
1.47627 17.8485 17.8485 2 3 1
1.48082 17.868 17.868 2 3 1
1.48536 17.8874 17.8874 2 3 1
1.4899 17.9069 17.9069 2 3 1
1.49445 17.9264 17.9264 2 3 1
1.49899 17.9459 17.9459 2 3 1
1.50352 17.9653 17.9653 2 3 1
1.50806 17.9848 17.9848 2 3 1
1.5126 18.0043 18.0043 2 3 1
1.51713 18.0237 18.0237 2 3 1
1.52166 18.0432 18.0432 2 3 1
1.52619 18.0627 18.0627 2 3 1
1.53072 18.0822 18.0822 2 3 1
1.53525 18.1016 18.1016 2 3 1
1.53978 18.1211 18.1211 2 3 1
1.54431 18.1406 18.1406 2 3 1
1.54883 18.16 18.16 2 3 1
1.55335 18.1795 18.1795 2 3 1
1.55787 18.199 18.199 2 3 1
1.56239 18.2185 18.2185 2 3 1
1.56691 18.2379 18.2379 2 3 1
1.57143 18.2574 18.2574 2 3 1
1.57595 18.2769 18.2769 2 3 1
1.58046 18.2964 18.2964 2 3 1
1.58497 18.3159 18.3159 2 3 1
1.58948 18.3353 18.3353 2 3 1
1.59399 18.3548 18.3548 2 3 1
1.5985 18.3743 18.3743 2 3 1
1.60301 18.3938 18.3938 2 3 1
1.60752 18.4132 18.4132 2 3 1
1.61202 18.4327 18.4327 2 3 1
1.61652 18.4522 18.4522 2 3 1
1.62102 18.4717 18.4717 2 3 1
1.62552 18.4912 18.4912 2 3 1
1.63002 18.5106 18.5106 2 3 1
1.63452 18.5301 18.5301 2 3 1
1.63902 18.5496 18.5496 2 3 1
1.64351 18.5691 18.5691 2 3 1
1.648 18.5886 18.5886 2 3 1
1.65249 18.608 18.608 2 3 1
1.65698 18.6275 18.6275 2 3 1
1.66147 18.647 18.647 2 3 1
1.66596 18.6665 18.6665 2 3 1
1.67045 18.686 18.686 2 3 1
1.67493 18.7055 18.7055 2 3 1
1.67941 18.7249 18.7249 2 3 1
1.68389 18.7444 18.7444 2 3 1
1.68838 18.7639 18.7639 2 3 1
1.69285 18.7834 18.7834 2 3 1
1.69733 18.8029 18.8029 2 3 1
1.70181 18.8224 18.8224 2 3 1
1.70628 18.8419 18.8419 2 3 1
1.71075 18.8613 18.8613 2 3 1
1.71523 18.8808 18.8808 2 3 1
1.7197 18.9003 18.9003 2 3 1
1.72417 18.9198 18.9198 2 3 1
1.72863 18.9393 18.9393 2 3 1
1.7331 18.9588 18.9588 2 3 1
1.73756 18.9783 18.9783 2 3 1
1.74203 18.9978 18.9978 2 3 1
1.74649 19.0172 19.0172 2 3 1
1.75095 19.0367 19.0367 2 3 1
1.75541 19.0562 19.0562 2 3 1
1.75987 19.0757 19.0757 2 3 1
1.76432 19.0952 19.0952 2 3 1
1.76878 19.1147 19.1147 2 3 1
1.77323 19.1342 19.1342 2 3 1
1.77768 19.1537 19.1537 2 3 1
1.78213 19.1732 19.1732 2 3 1
1.78658 19.1927 19.1927 2 3 1
1.79103 19.2122 19.2122 2 3 1
1.79548 19.2316 19.2316 2 3 1
1.79992 19.2511 19.2511 2 3 1
1.80437 19.2706 19.2706 2 3 1
1.80881 19.2901 19.2901 2 3 1
1.81325 19.3096 19.3096 2 3 1
1.81769 19.3291 19.3291 2 3 1
1.82213 19.3486 19.3486 2 3 1
1.82656 19.3681 19.3681 2 3 1
1.831 19.3876 19.3876 2 3 1
1.83543 19.4071 19.4071 2 3 1
1.83986 19.4266 19.4266 2 3 1
1.84429 19.4461 19.4461 2 3 1
1.84872 19.4656 19.4656 2 3 1
1.85315 19.4851 19.4851 2 3 1
1.85758 19.5046 19.5046 2 3 1
1.862 19.5241 19.5241 2 3 1
1.86643 19.5436 19.5436 2 3 1
1.87085 19.5631 19.5631 2 3 1
1.87527 19.5826 19.5826 2 3 1
1.87969 19.6021 19.6021 2 3 1
1.88411 19.6216 19.6216 2 3 1
1.88853 19.6411 19.6411 2 3 1
1.89294 19.6606 19.6606 2 3 1
1.89736 19.6801 19.6801 2 3 1
1.90177 19.6996 19.6996 2 3 1
1.90618 19.7191 19.7191 2 3 1
1.91059 19.7386 19.7386 2 3 1
1.915 19.7581 19.7581 2 3 1
1.91941 19.7776 19.7776 2 3 1
1.92382 19.7971 19.7971 2 3 1
1.92822 19.8166 19.8166 2 3 1
1.93262 19.8361 19.8361 2 3 1
1.93703 19.8556 19.8556 2 3 1
1.94143 19.8751 19.8751 2 3 1
1.94583 19.8946 19.8946 2 3 1
1.95022 19.9141 19.9141 2 3 1
1.95462 19.9336 19.9336 2 3 1
1.95901 19.9531 19.9531 2 3 1
1.96341 19.9726 19.9726 2 3 1
1.9678 19.9921 19.9921 2 3 1
1.97219 20.0116 20.0116 2 3 1
1.97658 20.0311 20.0311 2 3 1
1.98097 20.0506 20.0506 2 3 1
1.98536 20.0702 20.0702 2 3 1
1.98974 20.0897 20.0897 2 3 1
1.99413 20.1092 20.1092 2 3 1
1.99851 20.1287 20.1287 2 3 1
2.00289 20.1482 20.1482 2 3 1
2.00727 20.1677 20.1677 2 3 1
2.01165 20.1872 20.1872 2 3 1
2.01602 20.2067 20.2067 2 3 1
2.0204 20.2262 20.2262 2 3 1
2.02477 20.2457 20.2457 2 3 1
2.02915 20.2652 20.2652 2 3 1
2.03352 20.2847 20.2847 2 3 1
2.03789 20.3043 20.3043 2 3 1
2.04226 20.3238 20.3238 2 3 1
2.04663 20.3433 20.3433 2 3 1
2.05099 20.3628 20.3628 2 3 1
2.05536 20.3823 20.3823 2 3 1
2.05972 20.4018 20.4018 2 3 1
2.06408 20.4213 20.4213 2 3 1
2.06844 20.4408 20.4408 2 3 1
2.0728 20.4604 20.4604 2 3 1
2.07716 20.4799 20.4799 2 3 1
2.08152 20.4994 20.4994 2 3 1
2.08587 20.5189 20.5189 2 3 1
2.09023 20.5384 20.5384 2 3 1
2.09458 20.5579 20.5579 2 3 1
2.09893 20.5774 20.5774 2 3 1
2.10328 20.597 20.597 2 3 1
2.10763 20.6165 20.6165 2 3 1
2.11198 20.636 20.636 2 3 1
2.11632 20.6555 20.6555 2 3 1
2.12067 20.675 20.675 2 3 1
2.12501 20.6945 20.6945 2 3 1
2.12935 20.7141 20.7141 2 3 1
2.13369 20.7336 20.7336 2 3 1
2.13803 20.7531 20.7531 2 3 1
2.14237 20.7726 20.7726 2 3 1
2.14671 20.7921 20.7921 2 3 1
2.15104 20.8116 20.8116 2 3 1
2.15537 20.8312 20.8312 2 3 1
2.15971 20.8507 20.8507 2 3 1
2.16404 20.8702 20.8702 2 3 1
2.16837 20.8897 20.8897 2 3 1
2.1727 20.9092 20.9092 2 3 1
2.17702 20.9288 20.9288 2 3 1
2.18135 20.9483 20.9483 2 3 1
2.18567 20.9678 20.9678 2 3 1
2.19 20.9873 20.9873 2 3 1
2.19432 21.0069 21.0069 2 3 1
2.19864 21.0264 21.0264 2 3 1
2.20296 21.0459 21.0459 2 3 1
2.20727 21.0654 21.0654 2 3 1
2.21159 21.0849 21.0849 2 3 1
2.2159 21.1045 21.1045 2 3 1
2.22022 21.124 21.124 2 3 1
2.22453 21.1435 21.1435 2 3 1
2.22884 21.163 21.163 2 3 1
2.23315 21.1826 21.1826 2 3 1
2.23746 21.2021 21.2021 2 3 1
2.24177 21.2216 21.2216 2 3 1
2.24607 21.2411 21.2411 2 3 1
2.25038 21.2607 21.2607 2 3 1
2.25468 21.2802 21.2802 2 3 1
2.25898 21.2997 21.2997 2 3 1
2.26328 21.3192 21.3192 2 3 1
2.26758 21.3388 21.3388 2 3 1
2.27188 21.3583 21.3583 2 3 1
2.27617 21.3778 21.3778 2 3 1
2.28047 21.3974 21.3974 2 3 1
2.28476 21.4169 21.4169 2 3 1
2.28905 21.4364 21.4364 2 3 1
2.29334 21.4559 21.4559 2 3 1
2.29763 21.4755 21.4755 2 3 1
2.30192 21.495 21.495 2 3 1
2.30621 21.5145 21.5145 2 3 1
2.31049 21.5341 21.5341 2 3 1
2.31478 21.5536 21.5536 2 3 1
2.31906 21.5731 21.5731 2 3 1
2.32334 21.5927 21.5927 2 3 1
2.32762 21.6122 21.6122 2 3 1
2.3319 21.6317 21.6317 2 3 1
2.33618 21.6512 21.6512 2 3 1
2.34046 21.6708 21.6708 2 3 1
2.34473 21.6903 21.6903 2 3 1
2.34901 21.7098 21.7098 2 3 1
2.35328 21.7294 21.7294 2 3 1
2.35755 21.7489 21.7489 2 3 1
2.36182 21.7684 21.7684 2 3 1
2.36609 21.788 21.788 2 3 1
2.37035 21.8075 21.8075 2 3 1
2.37462 21.827 21.827 2 3 1
2.37888 21.8466 21.8466 2 3 1
2.38315 21.8661 21.8661 2 3 1
2.38741 21.8857 21.8857 2 3 1
2.39167 21.9052 21.9052 2 3 1
2.39593 21.9247 21.9247 2 3 1
2.40019 21.9443 21.9443 2 3 1
2.40444 21.9638 21.9638 2 3 1
2.4087 21.9833 21.9833 2 3 1
2.41295 22.0029 22.0029 2 3 1
2.41721 22.0224 22.0224 2 3 1
2.42146 22.0419 22.0419 2 3 1
2.42571 22.0615 22.0615 2 3 1
2.42996 22.081 22.081 2 3 1
2.4342 22.1006 22.1006 2 3 1
2.43845 22.1201 22.1201 2 3 1
2.44269 22.1396 22.1396 2 3 1
2.44694 22.1592 22.1592 2 3 1
2.45118 22.1787 22.1787 2 3 1
2.45542 22.1983 22.1983 2 3 1
2.45966 22.2178 22.2178 2 3 1
2.4639 22.2373 22.2373 2 3 1
2.46814 22.2569 22.2569 2 3 1
2.47237 22.2764 22.2764 2 3 1
2.47661 22.296 22.296 2 3 1
2.48084 22.3155 22.3155 2 3 1
2.48507 22.3351 22.3351 2 3 1
2.4893 22.3546 22.3546 2 3 1
2.49353 22.3741 22.3741 2 3 1
2.49776 22.3937 22.3937 2 3 1
2.50199 22.4132 22.4132 2 3 1
2.50621 22.4328 22.4328 2 3 1
2.51044 22.4523 22.4523 2 3 1
2.51466 22.4719 22.4719 2 3 1
2.51888 22.4914 22.4914 2 3 1
2.5231 22.5109 22.5109 2 3 1
2.52732 22.5305 22.5305 2 3 1
2.53154 22.55 22.55 2 3 1
2.53575 22.5696 22.5696 2 3 1
2.53997 22.5891 22.5891 2 3 1
2.54418 22.6087 22.6087 2 3 1
2.5484 22.6282 22.6282 2 3 1
2.55261 22.6478 22.6478 2 3 1
2.55682 22.6673 22.6673 2 3 1
2.56103 22.6869 22.6869 2 3 1
2.56523 22.7064 22.7064 2 3 1
2.56944 22.726 22.726 2 3 1
2.57364 22.7455 22.7455 2 3 1
2.57785 22.7651 22.7651 2 3 1
2.58205 22.7846 22.7846 2 3 1
2.58625 22.8041 22.8041 2 3 1
2.59045 22.8237 22.8237 2 3 1
2.59465 22.8432 22.8432 2 3 1
2.59885 22.8628 22.8628 2 3 1
2.60304 22.8823 22.8823 2 3 1
2.60724 22.9019 22.9019 2 3 1
2.61143 22.9215 22.9215 2 3 1
2.61562 22.941 22.941 2 3 1
2.61981 22.9606 22.9606 2 3 1
2.624 22.9801 22.9801 2 3 1
2.62819 22.9997 22.9997 2 3 1
2.63238 23.0192 23.0192 2 3 1
2.63656 23.0388 23.0388 2 3 1
2.64075 23.0583 23.0583 2 3 1
2.64493 23.0779 23.0779 2 3 1
2.64911 23.0974 23.0974 2 3 1
2.65329 23.117 23.117 2 3 1
2.65747 23.1365 23.1365 2 3 1
2.66165 23.1561 23.1561 2 3 1
2.66583 23.1756 23.1756 2 3 1
2.67001 23.1952 23.1952 2 3 1
2.67418 23.2147 23.2147 2 3 1
2.67835 23.2343 23.2343 2 3 1
2.68252 23.2539 23.2539 2 3 1
2.6867 23.2734 23.2734 2 3 1
2.69086 23.293 23.293 2 3 1
2.69503 23.3125 23.3125 2 3 1
2.6992 23.3321 23.3321 2 3 1
2.70336 23.3516 23.3516 2 3 1
2.70753 23.3712 23.3712 2 3 1
2.71169 23.3908 23.3908 2 3 1
2.71585 23.4103 23.4103 2 3 1
2.72001 23.4299 23.4299 2 3 1
2.72417 23.4494 23.4494 2 3 1
2.72833 23.469 23.469 2 3 1
2.73249 23.4885 23.4885 2 3 1
2.73664 23.5081 23.5081 2 3 1
2.7408 23.5277 23.5277 2 3 1
2.74495 23.5472 23.5472 2 3 1
2.7491 23.5668 23.5668 2 3 1
2.75325 23.5863 23.5863 2 3 1
2.7574 23.6059 23.6059 2 3 1
2.76155 23.6255 23.6255 2 3 1
2.7657 23.645 23.645 2 3 1
2.76984 23.6646 23.6646 2 3 1
2.77399 23.6841 23.6841 2 3 1
2.77813 23.7037 23.7037 2 3 1
2.78227 23.7233 23.7233 2 3 1
2.78641 23.7428 23.7428 2 3 1
2.79055 23.7624 23.7624 2 3 1
2.79469 23.782 23.782 2 3 1
2.79883 23.8015 23.8015 2 3 1
2.80296 23.8211 23.8211 2 3 1
2.8071 23.8406 23.8406 2 3 1
2.81123 23.8602 23.8602 2 3 1
2.81536 23.8798 23.8798 2 3 1
2.81949 23.8993 23.8993 2 3 1
2.82362 23.9189 23.9189 2 3 1
2.82775 23.9385 23.9385 2 3 1
2.83188 23.958 23.958 2 3 1
2.836 23.9776 23.9776 2 3 1
2.84013 23.9972 23.9972 2 3 1
2.84425 24.0167 24.0167 2 3 1
2.84837 24.0363 24.0363 2 3 1
2.85249 24.0559 24.0559 2 3 1
2.85661 24.0754 24.0754 2 3 1
2.86073 24.095 24.095 2 3 1
2.86485 24.1146 24.1146 2 3 1
2.86897 24.1341 24.1341 2 3 1
2.87308 24.1537 24.1537 2 3 1
2.87719 24.1733 24.1733 2 3 1
2.88131 24.1928 24.1928 2 3 1
2.88542 24.2124 24.2124 2 3 1
2.88953 24.232 24.232 2 3 1
2.89363 24.2515 24.2515 2 3 1
2.89774 24.2711 24.2711 2 3 1
2.90185 24.2907 24.2907 2 3 1
2.90595 24.3103 24.3103 2 3 1
2.91006 24.3298 24.3298 2 3 1
2.91416 24.3494 24.3494 2 3 1
2.91826 24.369 24.369 2 3 1
2.92236 24.3885 24.3885 2 3 1
2.92646 24.4081 24.4081 2 3 1
2.93056 24.4277 24.4277 2 3 1
2.93465 24.4473 24.4473 2 3 1
2.93875 24.4668 24.4668 2 3 1
2.94284 24.4864 24.4864 2 3 1
2.94693 24.506 24.506 2 3 1
2.95103 24.5255 24.5255 2 3 1
2.95512 24.5451 24.5451 2 3 1
2.9592 24.5647 24.5647 2 3 1
2.96329 24.5843 24.5843 2 3 1
2.96738 24.6038 24.6038 2 3 1
2.97146 24.6234 24.6234 2 3 1
2.97555 24.643 24.643 2 3 1
2.97963 24.6626 24.6626 2 3 1
2.98371 24.6821 24.6821 2 3 1
2.98779 24.7017 24.7017 2 3 1
2.99187 24.7213 24.7213 2 3 1
2.99595 24.7409 24.7409 2 3 1
3.00003 24.7604 24.7604 2 3 1
3.0041 24.78 24.78 2 3 1
3.00818 24.7996 24.7996 2 3 1
3.01225 24.8192 24.8192 2 3 1
3.01632 24.8387 24.8387 2 3 1
3.02039 24.8583 24.8583 2 3 1
3.02446 24.8779 24.8779 2 3 1
3.02853 24.8975 24.8975 2 3 1
3.0326 24.9171 24.9171 2 3 1
3.03667 24.9366 24.9366 2 3 1
3.04073 24.9562 24.9562 2 3 1
3.0448 24.9758 24.9758 2 3 1
3.04886 24.9954 24.9954 2 3 1
3.05292 25.015 25.015 2 3 1
3.05698 25.0345 25.0345 2 3 1
3.06104 25.0541 25.0541 2 3 1
3.0651 25.0737 25.0737 2 3 1
3.06915 25.0933 25.0933 2 3 1
3.07321 25.1129 25.1129 2 3 1
3.07726 25.1324 25.1324 2 3 1
3.08131 25.152 25.152 2 3 1
3.08537 25.1716 25.1716 2 3 1
3.08942 25.1912 25.1912 2 3 1
3.09347 25.2108 25.2108 2 3 1
3.09751 25.2303 25.2303 2 3 1
3.10156 25.2499 25.2499 2 3 1
3.10561 25.2695 25.2695 2 3 1
3.10965 25.2891 25.2891 2 3 1
3.1137 25.3087 25.3087 2 3 1
3.11774 25.3283 25.3283 2 3 1
3.12178 25.3478 25.3478 2 3 1
3.12582 25.3674 25.3674 2 3 1
3.12986 25.387 25.387 2 3 1
3.1339 25.4066 25.4066 2 3 1
3.13793 25.4262 25.4262 2 3 1
3.14197 25.4458 25.4458 2 3 1
3.146 25.4653 25.4653 2 3 1
3.15003 25.4849 25.4849 2 3 1
3.15407 25.5045 25.5045 2 3 1
3.1581 25.5241 25.5241 2 3 1
3.16213 25.5437 25.5437 2 3 1
3.16615 25.5633 25.5633 2 3 1
3.17018 25.5829 25.5829 2 3 1
3.17421 25.6024 25.6024 2 3 1
3.17823 25.622 25.622 2 3 1
3.18225 25.6416 25.6416 2 3 1
3.18628 25.6612 25.6612 2 3 1
3.1903 25.6808 25.6808 2 3 1
3.19432 25.7004 25.7004 2 3 1
3.19834 25.72 25.72 2 3 1
3.20235 25.7396 25.7396 2 3 1
3.20637 25.7592 25.7592 2 3 1
3.21039 25.7787 25.7787 2 3 1
3.2144 25.7983 25.7983 2 3 1
3.21841 25.8179 25.8179 2 3 1
3.22242 25.8375 25.8375 2 3 1
3.22643 25.8571 25.8571 2 3 1
3.23044 25.8767 25.8767 2 3 1
3.23445 25.8963 25.8963 2 3 1
3.23846 25.9159 25.9159 2 3 1
3.24246 25.9355 25.9355 2 3 1
3.24647 25.9551 25.9551 2 3 1
3.25047 25.9746 25.9746 2 3 1
3.25448 25.9942 25.9942 2 3 1
3.25848 26.0138 26.0138 2 3 1
3.26248 26.0334 26.0334 2 3 1
3.26648 26.053 26.053 2 3 1
3.27047 26.0726 26.0726 2 3 1
3.27447 26.0922 26.0922 2 3 1
3.27847 26.1118 26.1118 2 3 1
3.28246 26.1314 26.1314 2 3 1
3.28645 26.151 26.151 2 3 1
3.29045 26.1706 26.1706 2 3 1
3.29444 26.1902 26.1902 2 3 1
3.29843 26.2098 26.2098 2 3 1
3.30241 26.2294 26.2294 2 3 1
3.3064 26.249 26.249 2 3 1
3.31039 26.2685 26.2685 2 3 1
3.31437 26.2881 26.2881 2 3 1
3.31836 26.3077 26.3077 2 3 1
3.32234 26.3273 26.3273 2 3 1
3.32632 26.3469 26.3469 2 3 1
3.3303 26.3665 26.3665 2 3 1
3.33428 26.3861 26.3861 2 3 1
3.33826 26.4057 26.4057 2 3 1
3.34224 26.4253 26.4253 2 3 1
3.34621 26.4449 26.4449 2 3 1
3.35019 26.4645 26.4645 2 3 1
3.35416 26.4841 26.4841 2 3 1
3.35813 26.5037 26.5037 2 3 1
3.3621 26.5233 26.5233 2 3 1
3.36607 26.5429 26.5429 2 3 1
3.37004 26.5625 26.5625 2 3 1
3.37401 26.5821 26.5821 2 3 1
3.37798 26.6017 26.6017 2 3 1
3.38194 26.6213 26.6213 2 3 1
3.38591 26.6409 26.6409 2 3 1
3.38987 26.6605 26.6605 2 3 1
3.39383 26.6801 26.6801 2 3 1
3.39779 26.6997 26.6997 2 3 1
3.40175 26.7193 26.7193 2 3 1
3.40571 26.7389 26.7389 2 3 1
3.40967 26.7585 26.7585 2 3 1
3.41363 26.7781 26.7781 2 3 1
3.41758 26.7977 26.7977 2 3 1
3.42154 26.8173 26.8173 2 3 1
3.42549 26.8369 26.8369 2 3 1
3.42944 26.8565 26.8565 2 3 1
3.43339 26.8761 26.8761 2 3 1
3.43734 26.8957 26.8957 2 3 1
3.44129 26.9153 26.9153 2 3 1
3.44524 26.9349 26.9349 2 3 1
3.44919 26.9545 26.9545 2 3 1
3.45313 26.9741 26.9741 2 3 1
3.45708 26.9937 26.9937 2 3 1
3.46102 27.0133 27.0133 2 3 1
3.46496 27.0329 27.0329 2 3 1
3.4689 27.0525 27.0525 2 3 1
3.47284 27.0722 27.0722 2 3 1
3.47678 27.0918 27.0918 2 3 1
3.48072 27.1114 27.1114 2 3 1
3.48465 27.131 27.131 2 3 1
3.48859 27.1506 27.1506 2 3 1
3.49252 27.1702 27.1702 2 3 1
3.49645 27.1898 27.1898 2 3 1
3.50039 27.2094 27.2094 2 3 1
3.50432 27.229 27.229 2 3 1
3.50825 27.2486 27.2486 2 3 1
3.51217 27.2682 27.2682 2 3 1
3.5161 27.2878 27.2878 2 3 1
3.52003 27.3074 27.3074 2 3 1
3.52395 27.327 27.327 2 3 1
3.52788 27.3466 27.3466 2 3 1
3.5318 27.3663 27.3663 2 3 1
3.53572 27.3859 27.3859 2 3 1
3.53964 27.4055 27.4055 2 3 1
3.54356 27.4251 27.4251 2 3 1
3.54748 27.4447 27.4447 2 3 1
3.5514 27.4643 27.4643 2 3 1
3.55531 27.4839 27.4839 2 3 1
3.55923 27.5035 27.5035 2 3 1
3.56314 27.5231 27.5231 2 3 1
3.56706 27.5427 27.5427 2 3 1
3.57097 27.5623 27.5623 2 3 1
3.57488 27.582 27.582 2 3 1
3.57879 27.6016 27.6016 2 3 1
3.5827 27.6212 27.6212 2 3 1
3.5866 27.6408 27.6408 2 3 1
3.59051 27.6604 27.6604 2 3 1
3.59441 27.68 27.68 2 3 1
3.59832 27.6996 27.6996 2 3 1
3.60222 27.7192 27.7192 2 3 1
3.60612 27.7389 27.7389 2 3 1
3.61002 27.7585 27.7585 2 3 1
3.61392 27.7781 27.7781 2 3 1
3.61782 27.7977 27.7977 2 3 1
3.62172 27.8173 27.8173 2 3 1
3.62562 27.8369 27.8369 2 3 1
3.62951 27.8565 27.8565 2 3 1
3.63341 27.8761 27.8761 2 3 1
3.6373 27.8958 27.8958 2 3 1
3.64119 27.9154 27.9154 2 3 1
3.64508 27.935 27.935 2 3 1
3.64897 27.9546 27.9546 2 3 1
3.65286 27.9742 27.9742 2 3 1
3.65675 27.9938 27.9938 2 3 1
3.66063 28.0135 28.0135 2 3 1
3.66452 28.0331 28.0331 2 3 1
3.6684 28.0527 28.0527 2 3 1
3.67229 28.0723 28.0723 2 3 1
3.67617 28.0919 28.0919 2 3 1
3.68005 28.1115 28.1115 2 3 1
3.68393 28.1311 28.1311 2 3 1
3.68781 28.1508 28.1508 2 3 1
3.69169 28.1704 28.1704 2 3 1
3.69556 28.19 28.19 2 3 1
3.69944 28.2096 28.2096 2 3 1
3.70331 28.2292 28.2292 2 3 1
3.70719 28.2489 28.2489 2 3 1
3.71106 28.2685 28.2685 2 3 1
3.71493 28.2881 28.2881 2 3 1
3.7188 28.3077 28.3077 2 3 1
3.72267 28.3273 28.3273 2 3 1
3.72654 28.3469 28.3469 2 3 1
3.73041 28.3666 28.3666 2 3 1
3.73427 28.3862 28.3862 2 3 1
3.73814 28.4058 28.4058 2 3 1
3.742 28.4254 28.4254 2 3 1
3.74586 28.445 28.445 2 3 1
3.74972 28.4647 28.4647 2 3 1
3.75358 28.4843 28.4843 2 3 1
3.75744 28.5039 28.5039 2 3 1
3.7613 28.5235 28.5235 2 3 1
3.76516 28.5432 28.5432 2 3 1
3.76902 28.5628 28.5628 2 3 1
3.77287 28.5824 28.5824 2 3 1
3.77672 28.602 28.602 2 3 1
3.78058 28.6216 28.6216 2 3 1
3.78443 28.6413 28.6413 2 3 1
3.78828 28.6609 28.6609 2 3 1
3.79213 28.6805 28.6805 2 3 1
3.79598 28.7001 28.7001 2 3 1
3.79983 28.7198 28.7198 2 3 1
3.80367 28.7394 28.7394 2 3 1
3.80752 28.759 28.759 2 3 1
3.81136 28.7786 28.7786 2 3 1
3.81521 28.7983 28.7983 2 3 1
3.81905 28.8179 28.8179 2 3 1
3.82289 28.8375 28.8375 2 3 1
3.82673 28.8571 28.8571 2 3 1
3.83057 28.8768 28.8768 2 3 1
3.83441 28.8964 28.8964 2 3 1
3.83824 28.916 28.916 2 3 1
3.84208 28.9356 28.9356 2 3 1
3.84592 28.9553 28.9553 2 3 1
3.84975 28.9749 28.9749 2 3 1
3.85358 28.9945 28.9945 2 3 1
3.85741 29.0141 29.0141 2 3 1
3.86124 29.0338 29.0338 2 3 1
3.86507 29.0534 29.0534 2 3 1
3.8689 29.073 29.073 2 3 1
3.87273 29.0926 29.0926 2 3 1
3.87656 29.1123 29.1123 2 3 1
3.88038 29.1319 29.1319 2 3 1
3.88421 29.1515 29.1515 2 3 1
3.88803 29.1712 29.1712 2 3 1
3.89185 29.1908 29.1908 2 3 1
3.89567 29.2104 29.2104 2 3 1
3.89949 29.23 29.23 2 3 1
3.90331 29.2497 29.2497 2 3 1
3.90713 29.2693 29.2693 2 3 1
3.91095 29.2889 29.2889 2 3 1
3.91476 29.3086 29.3086 2 3 1
3.91858 29.3282 29.3282 2 3 1
3.92239 29.3478 29.3478 2 3 1
3.9262 29.3674 29.3674 2 3 1
3.93002 29.3871 29.3871 2 3 1
3.93383 29.4067 29.4067 2 3 1
3.93764 29.4263 29.4263 2 3 1
3.94145 29.446 29.446 2 3 1
3.94525 29.4656 29.4656 2 3 1
3.94906 29.4852 29.4852 2 3 1
3.95286 29.5049 29.5049 2 3 1
3.95667 29.5245 29.5245 2 3 1
3.96047 29.5441 29.5441 2 3 1
3.96428 29.5638 29.5638 2 3 1
3.96808 29.5834 29.5834 2 3 1
3.97188 29.603 29.603 2 3 1
3.97568 29.6227 29.6227 2 3 1
3.97947 29.6423 29.6423 2 3 1
3.98327 29.6619 29.6619 2 3 1
3.98707 29.6816 29.6816 2 3 1
3.99086 29.7012 29.7012 2 3 1
3.99466 29.7208 29.7208 2 3 1
3.99845 29.7405 29.7405 2 3 1
4.00224 29.7601 29.7601 2 3 1
4.00603 29.7797 29.7797 2 3 1
4.00982 29.7994 29.7994 2 3 1
4.01361 29.819 29.819 2 3 1
4.0174 29.8386 29.8386 2 3 1
4.02119 29.8583 29.8583 2 3 1
4.02497 29.8779 29.8779 2 3 1
4.02876 29.8975 29.8975 2 3 1
4.03254 29.9172 29.9172 2 3 1
4.03632 29.9368 29.9368 2 3 1
4.0401 29.9565 29.9565 2 3 1
4.04389 29.9761 29.9761 2 3 1
4.04767 29.9957 29.9957 2 3 1
4.05144 30.0154 30.0154 2 3 1
4.05522 30.035 30.035 2 3 1
4.059 30.0546 30.0546 2 3 1
4.06277 30.0743 30.0743 2 3 1
4.06655 30.0939 30.0939 2 3 1
4.07032 30.1136 30.1136 2 3 1
4.07409 30.1332 30.1332 2 3 1
4.07787 30.1528 30.1528 2 3 1
4.08164 30.1725 30.1725 2 3 1
4.08541 30.1921 30.1921 2 3 1
4.08917 30.2117 30.2117 2 3 1
4.09294 30.2314 30.2314 2 3 1
4.09671 30.251 30.251 2 3 1
4.10047 30.2707 30.2707 2 3 1
4.10424 30.2903 30.2903 2 3 1
4.108 30.3099 30.3099 2 3 1
4.11176 30.3296 30.3296 2 3 1
4.11552 30.3492 30.3492 2 3 1
4.11928 30.3689 30.3689 2 3 1
4.12304 30.3885 30.3885 2 3 1
4.1268 30.4081 30.4081 2 3 1
4.13056 30.4278 30.4278 2 3 1
4.13431 30.4474 30.4474 2 3 1
4.13807 30.4671 30.4671 2 3 1
4.14182 30.4867 30.4867 2 3 1
4.14558 30.5064 30.5064 2 3 1
4.14933 30.526 30.526 2 3 1
4.15308 30.5456 30.5456 2 3 1
4.15683 30.5653 30.5653 2 3 1
4.16058 30.5849 30.5849 2 3 1
4.16433 30.6046 30.6046 2 3 1
4.16808 30.6242 30.6242 2 3 1
4.17182 30.6439 30.6439 2 3 1
4.17557 30.6635 30.6635 2 3 1
4.17931 30.6831 30.6831 2 3 1
4.18305 30.7028 30.7028 2 3 1
4.1868 30.7224 30.7224 2 3 1
4.19054 30.7421 30.7421 2 3 1
4.19428 30.7617 30.7617 2 3 1
4.19802 30.7814 30.7814 2 3 1
4.20175 30.801 30.801 2 3 1
4.20549 30.8207 30.8207 2 3 1
4.20923 30.8403 30.8403 2 3 1
4.21296 30.8599 30.8599 2 3 1
4.2167 30.8796 30.8796 2 3 1
4.22043 30.8992 30.8992 2 3 1
4.22416 30.9189 30.9189 2 3 1
4.22789 30.9385 30.9385 2 3 1
4.23162 30.9582 30.9582 2 3 1
4.23535 30.9778 30.9778 2 3 1
4.23908 30.9975 30.9975 2 3 1
4.24281 31.0171 31.0171 2 3 1
4.24653 31.0368 31.0368 2 3 1
4.25026 31.0564 31.0564 2 3 1
4.25398 31.0761 31.0761 2 3 1
4.25771 31.0957 31.0957 2 3 1
4.26143 31.1154 31.1154 2 3 1
4.26515 31.135 31.135 2 3 1
4.26887 31.1547 31.1547 2 3 1
4.27259 31.1743 31.1743 2 3 1
4.27631 31.194 31.194 2 3 1
4.28002 31.2136 31.2136 2 3 1
4.28374 31.2332 31.2332 2 3 1
4.28745 31.2529 31.2529 2 3 1
4.29117 31.2725 31.2725 2 3 1
4.29488 31.2922 31.2922 2 3 1
4.29859 31.3118 31.3118 2 3 1
4.30231 31.3315 31.3315 2 3 1
4.30602 31.3511 31.3511 2 3 1
4.30973 31.3708 31.3708 2 3 1
4.31343 31.3904 31.3904 2 3 1
4.31714 31.4101 31.4101 2 3 1
4.32085 31.4298 31.4298 2 3 1
4.32455 31.4494 31.4494 2 3 1
4.32826 31.4691 31.4691 2 3 1
4.33196 31.4887 31.4887 2 3 1
4.33566 31.5084 31.5084 2 3 1
4.33936 31.528 31.528 2 3 1
4.34306 31.5477 31.5477 2 3 1
4.34676 31.5673 31.5673 2 3 1
4.35046 31.587 31.587 2 3 1
4.35416 31.6066 31.6066 2 3 1
4.35786 31.6263 31.6263 2 3 1
4.36155 31.6459 31.6459 2 3 1
4.36525 31.6656 31.6656 2 3 1
4.36894 31.6852 31.6852 2 3 1
4.37263 31.7049 31.7049 2 3 1
4.37632 31.7245 31.7245 2 3 1
4.38002 31.7442 31.7442 2 3 1
4.38371 31.7638 31.7638 2 3 1
4.38739 31.7835 31.7835 2 3 1
4.39108 31.8032 31.8032 2 3 1
4.39477 31.8228 31.8228 2 3 1
4.39845 31.8425 31.8425 2 3 1
4.40214 31.8621 31.8621 2 3 1
4.40582 31.8818 31.8818 2 3 1
4.40951 31.9014 31.9014 2 3 1
4.41319 31.9211 31.9211 2 3 1
4.41687 31.9407 31.9407 2 3 1
4.42055 31.9604 31.9604 2 3 1
4.42423 31.9801 31.9801 2 3 1
4.42791 31.9997 31.9997 2 3 1
4.43158 32.0194 32.0194 2 3 1
4.43526 32.039 32.039 2 3 1
4.43893 32.0587 32.0587 2 3 1
4.44261 32.0783 32.0783 2 3 1
4.44628 32.098 32.098 2 3 1
4.44995 32.1177 32.1177 2 3 1
4.45363 32.1373 32.1373 2 3 1
4.4573 32.157 32.157 2 3 1
4.46097 32.1766 32.1766 2 3 1
4.46463 32.1963 32.1963 2 3 1
4.4683 32.2159 32.2159 2 3 1
4.47197 32.2356 32.2356 2 3 1
4.47563 32.2553 32.2553 2 3 1
4.4793 32.2749 32.2749 2 3 1
4.48296 32.2946 32.2946 2 3 1
4.48663 32.3142 32.3142 2 3 1
4.49029 32.3339 32.3339 2 3 1
4.49395 32.3536 32.3536 2 3 1
